ply
format ascii 1.0
element vertex 1294
property float x
property float y
property float z
property uchar red
property uchar green
property uchar blue
end_header
-3.4629 67.6694 -95.3137 255 255 255
-105.874 58.9983 -65.3816 255 255 255
-76.1462 45.9465 -30.3122 255 255 255
-47.1868 51.4586 -49.9532 255 255 255
50.9274 43.8049 -25.6599 255 255 255
38.9797 73.7521 -113.575 255 255 255
45.6155 28.2264 17.5712 255 255 255
-13.5866 62.3577 -84.046 255 255 255
49.1646 26.88 21.5096 255 255 255
49.1646 26.88 21.5096 255 255 255
56.0783 26.3866 23.7343 255 255 255
52.4926 40.4603 -17.9008 255 255 255
31.499 72.4299 -111.623 255 255 255
28.3614 70.6221 -108.24 255 255 255
-34.4765 54.1103 -61.8734 255 255 255
56.1797 23.3284 31.5278 255 255 255
-6.1672 61.4649 -84.4102 255 255 255
56.3776 22.2379 33.5332 255 255 255
-4.22165 61.3976 -85.7972 255 255 255
56.2981 22.3571 33.0128 255 255 255
62.6806 78.0486 -132.767 255 255 255
60.5782 77.2115 -128.765 255 255 255
57.4785 22.357 32.0433 255 255 255
56.4824 21.9472 33.5136 255 255 255
54.793 39.8605 -21.2158 255 255 255
48.3854 25.2324 21.4348 255 255 255
56.3239 21.0699 33.3278 255 255 255
33.4129 69.8261 -115.399 255 255 255
54.5453 19.4066 38.6437 255 255 255
-39.8924 49.9949 -61.1512 255 255 255
-26.0186 53.5249 -70.7148 255 255 255
48.398 26.2553 15.374 255 255 255
-64.7164 44.4903 -41.4387 255 255 255
46.4139 25.7895 15.6224 255 255 255
48.8731 26.5597 14.2414 255 255 255
53.6318 23.634 23.5002 255 255 255
56.5803 19.9475 33.1494 255 255 255
54.5331 18.8705 37.2664 255 255 255
53.1951 23.2033 23.8918 255 255 255
53.1951 23.2033 23.8918 255 255 255
-108.035 54.6863 -73.2804 255 255 255
-46.2388 46.1727 -54.1161 255 255 255
53.1849 25.7494 15.0709 255 255 255
-24.4733 53.0781 -74.561 255 255 255
27.9129 66.8283 -116.51 255 255 255
51.6558 21.1309 28.2999 255 255 255
-24.3587 52.7485 -74.7471 255 255 255
-34.7324 49.5709 -66.2938 255 255 255
49.0883 23.8954 20.3125 255 255 255
48.7116 22.7364 21.5783 255 255 255
-36.1473 49.4526 -67.7366 255 255 255
-58.1237 46.0806 -55.9194 255 255 255
-61.2364 42.4777 -44.8791 255 255 255
-61.2306 42.8943 -46.995 255 255 255
-46.7056 48.7377 -65.0312 255 255 255
55.3206 17.4089 38.0835 255 255 255
48.9735 24.8194 12.4366 255 255 255
49.4874 22.0337 22.6253 255 255 255
48.938 36.0613 -25.436 255 255 255
50.9126 34.8308 -23.5187 255 255 255
50.9155 33.3897 -18.386 255 255 255
-55.9299 43.4708 -52.1306 255 255 255
53.2251 18.3863 31.5176 255 255 255
-158.847 73.6378 -145.867 255 255 255
66.452 42.8118 -50.9901 255 255 255
66.452 42.8118 -50.9901 255 255 255
-105.241 52.3446 -81.8236 255 255 255
50.1959 37.9726 -36.6975 255 255 255
45.7908 23.7246 9.61761 255 255 255
-46.6119 44.545 -60.9852 255 255 255
-46.7147 45.2692 -64.9862 255 255 255
-3.12582 56.7079 -102.551 255 255 255
-49.9499 42.7683 -58.0553 255 255 255
45.6468 22.5776 12.2836 255 255 255
-62.5458 40.6973 -49.5379 255 255 255
-61.8491 39.3734 -46.1061 255 255 255
-63.0897 42.3155 -56.0827 255 255 255
-46.9755 43.5763 -62.1353 255 255 255
50.7273 31.3272 -18.9533 255 255 255
-79.2091 37.1357 -38.3817 255 255 255
44.8351 22.8163 10.7037 255 255 255
47.5649 21.1423 14.9676 255 255 255
-79.1832 38.5106 -43.6207 255 255 255
-23.0133 48.547 -82.4855 255 255 255
46.6375 20.4701 16.788 255 255 255
-73.1012 37.4303 -41.8106 255 255 255
-78.1063 36.5244 -39.5145 255 255 255
-78.0308 36.4426 -39.3152 255 255 255
-74.1935 37.6394 -44.2484 255 255 255
-72.8679 36.7299 -43.4128 255 255 255
52.3184 29.2659 -17.2509 255 255 255
57.6698 16.3235 31.2241 255 255 255
55.3196 14.791 33.2338 255 255 255
47.8524 20.3775 12.298 255 255 255
54.5876 28.4206 -17.0524 255 255 255
-29.9719 44.7853 -77.2065 255 255 255
-78.9876 36.0336 -45.9282 255 255 255
-25.1965 46.5971 -83.4072 255 255 255
51.8836 30.7251 -26.5002 255 255 255
52.4799 28.6725 -16.894 255 255 255
53.5612 27.8777 -15.5119 255 255 255
-58.6201 32.0401 -35.5403 255 255 255
-61.3075 34.1881 -42.5926 255 255 255
53.3462 27.1116 -15.3497 255 255 255
-37.3634 42.1057 -71.8352 255 255 255
-37.6049 43.0108 -74.2273 255 255 255
-146.81 58.3184 -123.382 255 255 255
-31.2622 44.1058 -80.3646 255 255 255
-6.74143 49.6883 -100.226 255 255 255
53.3028 15.0178 27.9474 255 255 255
-7.41149 50.5721 -106.836 255 255 255
-82.8021 34.636 -47.8796 255 255 255
49.0265 17.4327 17.0125 255 255 255
50.449 17.7477 16.3637 255 255 255
50.3244 17.6793 16.3399 255 255 255
-61.0396 36.4342 -55.7787 255 255 255
-47.2814 38.4613 -66.5802 255 255 255
-59.952 37.8561 -60.4813 255 255 255
24.3153 47.6949 -99.5404 255 255 255
-65.6319 37.0638 -59.1035 255 255 255
-4.10571 47.5155 -100.784 255 255 255
53.852 14.3955 27.1417 255 255 255
48.916 16.2535 19.1941 255 255 255
51.7502 14.3704 25.8536 255 255 255
58.1599 15.784 24.0966 255 255 255
53.9756 13.5361 28.999 255 255 255
59.7863 24.5167 -13.353 255 255 255
48.2854 18.3276 11.216 255 255 255
55.638 15.0887 25.674 255 255 255
52.4756 14.559 24.6142 255 255 255
49.2388 19.0865 8.25559 255 255 255
-30.2512 41.4521 -85.0743 255 255 255
-2.20615 44.1746 -97.6992 255 255 255
-55.3397 35.3546 -62.2921 255 255 255
46.2718 18.1711 9.70321 255 255 255
50.5127 15.0612 18.6482 255 255 255
-75.449 32.1514 -49.1036 255 255 255
57.5503 13.8309 27.3133 255 255 255
55.8502 12.8233 28.5189 255 255 255
48.9785 16.0688 14.8405 255 255 255
54.9039 12.1349 30.6247 255 255 255
54.9039 12.1349 30.6247 255 255 255
46.2613 18.9155 3.09065 255 255 255
53.894 11.7295 30.7299 255 255 255
-72.0282 32.6779 -53.3418 255 255 255
47.894 15.8375 15.3598 255 255 255
-69.9895 30.6176 -48.4661 255 255 255
-54.0485 35.5179 -67.5696 255 255 255
-43.9245 35.766 -69.7925 255 255 255
-31.71 40.6426 -87.29 255 255 255
53.0975 13.3136 23.8689 255 255 255
53.4035 13.3737 23.457 255 255 255
-71.5541 31.6627 -52.6021 255 255 255
46.3866 17.2725 5.60131 255 255 255
-77.8998 30.7491 -51.1928 255 255 255
-84.896 31.2109 -50.4927 255 255 255
-63.8933 32.1278 -58.3533 255 255 255
56.4533 11.0485 31.1423 255 255 255
53.1803 14.072 17.7432 255 255 255
54.4358 14.991 16.3352 255 255 255
-38.6783 36.5327 -80.6109 255 255 255
3.96084 37.9562 -86.4961 255 255 255
49.1877 14.218 15.4988 255 255 255
46.706 15.1681 10.9124 255 255 255
-36.0881 35.4657 -79.8834 255 255 255
-85.1186 28.0596 -48.9722 255 255 255
50.2292 37.7465 -88.7176 255 255 255
47.7725 25.8667 -38.875 255 255 255
46.4569 14.3425 9.59152 255 255 255
51.1087 13.7295 13.137 255 255 255
-61.1923 30.7473 -64.9787 255 255 255
-70.552 29.1444 -58.6309 255 255 255
5.56589 33.5252 -80.144 255 255 255
57.3417 11.8278 19.8928 255 255 255
54.5479 10.6872 25.2528 255 255 255
59.3188 9.83802 31.7401 255 255 255
69.8297 15.6878 1.06036 255 255 255
54.5006 28.1286 -53.5421 255 255 255
56.6029 28.4097 -58.0952 255 255 255
-71.6006 22.2727 -32.5777 255 255 255
-41.4872 32.5064 -79.2187 255 255 255
-69.8906 21.1627 -29.9433 255 255 255
54.7653 9.77372 25.6826 255 255 255
55.0062 10.0913 24.3114 255 255 255
-68.0474 23.9988 -44.7058 255 255 255
53.7748 8.81724 27.7371 255 255 255
37.6705 35.6732 -96.9228 255 255 255
-61.8812 24.7478 -49.7409 255 255 255
53.0327 22.8344 -37.8276 255 255 255
-83.3017 25.6678 -49.3059 255 255 255
50.0234 11.8141 13.3105 255 255 255
-79.0766 25.3148 -50.5006 255 255 255
47.5592 13.4683 3.23519 255 255 255
48.4743 13.7422 2.9064 255 255 255
47.9687 13.3192 4.19852 255 255 255
49.6099 11.1637 14.0811 255 255 255
49.7953 11.1947 14.2269 255 255 255
46.2169 12.8115 4.49452 255 255 255
57.7769 10.0359 19.4166 255 255 255
4.22283 27.5352 -71.1259 255 255 255
56.041 12.0068 6.84188 255 255 255
-34.959 27.8611 -72.2773 255 255 255
57.5962 8.4227 26.5649 255 255 255
-32.2994 26.3371 -68.9346 255 255 255
53.6778 7.58408 25.3263 255 255 255
58.5692 6.58768 31.4593 255 255 255
55.9371 5.64087 34.3732 255 255 255
51.8116 10.1143 12.4979 255 255 255
58.801 6.30233 31.7587 255 255 255
49.0228 10.3434 8.9388 255 255 255
-13.7868 24.8811 -68.0972 255 255 255
54.8247 7.78038 22.864 255 255 255
35.6566 24.7753 -67.7724 255 255 255
-83.5298 21.9121 -50.0047 255 255 255
54.9869 7.28252 23.1188 255 255 255
-10.4601 24.6222 -69.1105 255 255 255
-80.6606 21.674 -50.1422 255 255 255
-15.8332 23.8834 -66.9178 255 255 255
-1.43178 23.5908 -65.2194 255 255 255
55.5889 12.7897 -7.55773 255 255 255
-41.339 24.9791 -71.3165 255 255 255
58.5841 18.6262 -39.8529 255 255 255
47.8248 9.18128 11.6718 255 255 255
36.8783 21.8243 -55.9699 255 255 255
50.0768 9.42583 7.23226 255 255 255
-13.9495 22.4389 -66.3329 255 255 255
59.0465 4.71375 31.5027 255 255 255
-68.2142 22.2692 -64.7793 255 255 255
-18.0315 20.3334 -62.0247 255 255 255
-14.8239 21.0505 -64.9142 255 255 255
-8.88145 20.7199 -63.5397 255 255 255
-10.6913 20.8556 -64.4751 255 255 255
56.4814 5.03264 27.1506 255 255 255
57.5341 16.5371 -40.3245 255 255 255
51.4181 7.24572 11.5857 255 255 255
53.5508 6.1137 19.288 255 255 255
53.951 6.13234 18.8935 255 255 255
53.0229 6.11177 17.5355 255 255 255
53.0288 6.15937 17.5327 255 255 255
-57.7109 19.8 -59.5365 255 255 255
-77.9639 20.3182 -62.5765 255 255 255
48.4302 9.03954 -2.58199 255 255 255
-9.23534 18.2854 -60.1417 255 255 255
47.1584 7.15486 7.77165 255 255 255
49.6935 7.64141 5.08752 255 255 255
-12.1274 17.9066 -60.6833 255 255 255
-54.3116 16.6335 -57.851 255 255 255
58.6945 9.13065 -10.8469 255 255 255
-14.3016 16.2313 -56.7567 255 255 255
52.7254 4.69773 12.9005 255 255 255
-30.3868 14.8664 -55.094 255 255 255
61.527 3.25714 25.6388 255 255 255
54.1358 3.1848 19.6936 255 255 255
-10.705 14.7762 -55.209 255 255 255
56.69 3.57431 15.4745 255 255 255
-11.5402 13.6794 -52.5415 255 255 255
-2.88613 1.97091 24.0213 255 255 255
-0.318766 0.810028 26.4224 255 255 255
-69.6982 13.0822 -55.3434 255 255 255
50.3608 3.99535 4.77172 255 255 255
50.2748 3.45424 6.51632 255 255 255
48.6795 4.65455 -0.484562 255 255 255
-7.69058 0.226163 26.1741 255 255 255
49.3126 3.32506 3.76296 255 255 255
52.9177 1.72544 13.8673 255 255 255
53.3744 2.07621 12.5506 255 255 255
49.3821 3.25998 2.6599 255 255 255
65.4113 3.69128 0.463076 255 255 255
-50.8006 9.69973 -46.975 255 255 255
58.1996 -0.00639799 26.5425 255 255 255
50.7677 2.09521 8.39252 255 255 255
47.7296 4.56543 -8.465 255 255 255
50.6864 2.19941 6.92986 255 255 255
-21.2328 10.4417 -51.0652 255 255 255
54.0297 0.808745 15.911 255 255 255
53.981 0.513766 15.6981 255 255 255
54.6001 0.784678 13.7397 255 255 255
59.6556 -1.21371 29.1063 255 255 255
62.8497 2.65563 -1.69026 255 255 255
53.8048 0.457223 14.6103 255 255 255
55.918 0.606948 14.9755 255 255 255
54.1726 0.122204 15.639 255 255 255
54.1726 0.122204 15.639 255 255 255
67.7902 1.9354 1.63859 255 255 255
70.2631 2.58835 -2.09621 255 255 255
56.4656 -1.64141 28.3373 255 255 255
56.4656 -1.64141 28.3373 255 255 255
58.9384 -2.00629 29.9358 255 255 255
74.2982 1.9612 0.594969 255 255 255
59.5771 -0.901126 23.0694 255 255 255
-14.5088 0.640962 5.32822 255 255 255
49.923 0.205126 9.03662 255 255 255
54.1743 -0.601651 14.8981 255 255 255
59.5254 -1.29782 22.7569 255 255 255
-35.5714 5.61408 -42.1245 255 255 255
58.4938 -2.03223 25.9395 255 255 255
52.6767 -0.649979 11.3944 255 255 255
-15.449 -0.240022 6.7495 255 255 255
57.5857 -1.99213 25.5655 255 255 255
52.8981 -0.423289 10.1008 255 255 255
52.8981 -0.423289 10.1008 255 255 255
0.848754 -3.2188 33.034 255 255 255
55.2821 -1.60855 19.4687 255 255 255
54.8147 -1.28159 16.5978 255 255 255
58.8411 -2.3413 26.2724 255 255 255
58.9133 -1.61841 21.3822 255 255 255
57.0846 -2.1056 23.6834 255 255 255
58.2616 -2.34781 24.9107 255 255 255
57.7669 -2.27752 25.5628 255 255 255
55.5013 -1.93374 19.832 255 255 255
-102.671 5.84561 -41.1498 255 255 255
56.7434 -1.37341 15.1254 255 255 255
56.7434 -1.37341 15.1254 255 255 255
48.3465 2.20389 -16.3968 255 255 255
57.5277 -2.86182 26.2911 255 255 255
56.2876 -2.21871 20.0407 255 255 255
-16.7009 -1.22057 8.30917 255 255 255
53.0862 -1.4955 11.076 255 255 255
57.234 -3.01108 25.465 255 255 255
74.1268 -0.154833 0.819103 255 255 255
50.2478 -1.17208 2.37011 255 255 255
57.2737 -3.3291 25.1887 255 255 255
56.6052 -2.31743 16.3641 255 255 255
55.5876 -2.8242 17.8122 255 255 255
69.8766 -0.38142 -3.14644 255 255 255
54.9221 -2.79968 17.0516 255 255 255
55.2754 -2.67361 16.5265 255 255 255
-40.5549 2.6286 -37.1706 255 255 255
56.5948 -3.40417 21.954 255 255 255
57.7616 -3.54563 23.4711 255 255 255
57.5229 -2.59138 15.2448 255 255 255
-19.6251 -1.39637 6.27513 255 255 255
71.8211 -1.10154 0.453245 255 255 255
52.293 -2.14949 5.07147 255 255 255
56.197 -4.14574 24.0852 255 255 255
56.6411 -3.96709 22.8481 255 255 255
71.4314 -1.4694 0.932007 255 255 255
56.0974 -3.78735 19.6554 255 255 255
56.7674 -3.63836 18.5545 255 255 255
58.1025 -4.08701 25.1348 255 255 255
58.1025 -4.08701 25.1348 255 255 255
-61.7136 -0.584605 -18.5425 255 255 255
-19.1814 -2.80942 9.03241 255 255 255
51.5649 -2.65873 5.65535 255 255 255
55.6493 5.01594 -66.82 255 255 255
51.7925 -2.81162 5.93522 255 255 255
61.9355 -4.44089 26.1125 255 255 255
55.839 -4.29488 18.4967 255 255 255
-42.7453 0.360209 -32.4571 255 255 255
52.6815 -2.62921 3.14594 255 255 255
-8.83977 -5.57801 33.691 255 255 255
50.9983 -2.78998 -2.4574 255 255 255
58.0298 -5.23858 24.9903 255 255 255
57.8118 -5.07637 22.7934 255 255 255
52.7791 -3.77653 5.91578 255 255 255
58.163 -5.60934 24.758 255 255 255
59.9782 -4.76895 21.5521 255 255 255
-4.0957 -6.52825 37.3995 255 255 255
77.3369 -3.05287 2.48036 255 255 255
52.8622 -4.11013 6.48958 255 255 255
56.6473 -5.36811 20.4074 255 255 255
52.1493 -4.11378 5.12097 255 255 255
58.1355 -5.71558 21.6362 255 255 255
50.432 -3.37897 -9.16724 255 255 255
-16.2266 -5.62752 18.3021 255 255 255
57.5135 -6.04713 22.6127 255 255 255
-58.9841 -2.88426 -20.2843 255 255 255
50.2069 -2.80879 -20.5396 255 255 255
58.8001 -6.7078 27.4544 255 255 255
-16.351 -6.31062 19.9881 255 255 255
55.397 -6.08169 15.0424 255 255 255
57.6552 -5.77201 15.1523 255 255 255
57.4817 -6.80238 21.5732 255 255 255
60.1673 -5.94006 17.7472 255 255 255
6.2184 -8.10613 37.4488 255 255 255
48.7268 -4.72402 -13.4005 255 255 255
53.794 -5.92499 4.05517 255 255 255
56.3399 -6.76489 13.4891 255 255 255
58.3633 -8.23067 28.0533 255 255 255
54.7162 -6.96082 10.269 255 255 255
55.5031 -7.11013 12.9917 255 255 255
78.7156 -6.07323 3.13735 255 255 255
-20.7692 -7.46421 17.0911 255 255 255
2.71687 -8.92892 39.6954 255 255 255
56.6958 -7.41479 16.9656 255 255 255
56.4773 -7.56435 17.232 255 255 255
-14.1521 -8.32169 29.0114 255 255 255
68.8074 -6.50264 2.71309 255 255 255
61.187 -8.43116 28.0571 255 255 255
-2.4585 -9.1546 39.6522 255 255 255
55.9872 -7.60326 11.1358 255 255 255
-0.784899 -8.99049 35.9926 255 255 255
2.48869 -9.58204 39.9228 255 255 255
54.2846 -7.82827 7.49251 255 255 255
-42.0499 -5.41538 -25.4674 255 255 255
-60.5974 -6.77402 -13.0998 255 255 255
57.7032 -8.73326 21.9602 255 255 255
-11.8296 -9.09985 33.6804 255 255 255
-0.890554 -9.99179 40.2524 255 255 255
-0.927399 -9.94922 40.3327 255 255 255
-6.26385 -9.96819 38.6858 255 255 255
9.28055 -10.0597 37.0246 255 255 255
50.1293 -6.6365 -25.4194 255 255 255
-51.2439 -6.86764 -22.3087 255 255 255
56.5798 -9.53814 19.3602 255 255 255
4.42946 -10.4465 39.2201 255 255 255
61.5758 -5.68332 -45.5633 255 255 255
3.91256 -10.2811 35.0941 255 255 255
59.2806 -6.13091 -50.8423 255 255 255
54.5089 -9.72775 5.85504 255 255 255
65.4646 -8.9377 -3.49472 255 255 255
24.1414 -10.1328 17.312 255 255 255
59.5348 -9.60362 9.74587 255 255 255
55.622 -9.89046 9.52293 255 255 255
55.7045 -10.0437 10.2549 255 255 255
62.562 -6.28248 -57.9138 255 255 255
48.6572 -8.76865 -19.9462 255 255 255
54.7544 -9.94196 5.49366 255 255 255
56.8709 -10.1153 10.8561 255 255 255
-23.6493 -10.4878 20.0035 255 255 255
56.2604 -10.2266 9.97892 255 255 255
60.1047 -10.885 27.6007 255 255 255
-10.923 -11.0968 35.6855 255 255 255
-64.4674 -8.58672 -23.2945 255 255 255
62.4464 -9.804 -3.86205 255 255 255
56.9039 -10.4427 9.14736 255 255 255
55.9602 -10.8164 11.7908 255 255 255
58.9809 -11.2704 23.7308 255 255 255
60.7331 -11.4651 28.6243 255 255 255
55.7548 -10.9212 9.44318 255 255 255
56.0499 -11.0286 12.6892 255 255 255
60.4327 -7.86008 -50.5619 255 255 255
57.0826 -11.179 15.5471 255 255 255
62.6494 -11.0288 24.1013 255 255 255
54.7552 -10.9539 5.57694 255 255 255
56.2538 -11.083 11.4607 255 255 255
59.0559 -11.4838 23.6071 255 255 255
59.0559 -11.4838 23.6071 255 255 255
56.6165 -11.6322 14.4248 255 255 255
69.7462 -10.7992 -0.688511 255 255 255
-21.9336 -11.7503 22.383 255 255 255
54.1986 -11.6104 6.14304 255 255 255
54.6448 -11.5986 5.05257 255 255 255
56.0249 -11.5779 10.2274 255 255 255
60.7017 -12.1618 27.8392 255 255 255
55.4155 -10.2453 -21.3181 255 255 255
-44.3107 -10.6611 -19.1323 255 255 255
-6.47708 -12.483 39.531 255 255 255
64.7459 -11.4518 -1.36173 255 255 255
-47.0921 -10.8397 -18.9645 255 255 255
64.1525 -11.4943 -2.30961 255 255 255
-49.5392 -11.0638 -19.1089 255 255 255
57.0644 -12.5004 14.5237 255 255 255
56.6095 -12.5076 14.7171 255 255 255
-46.5371 -11.2265 -15.0285 255 255 255
-2.59437 -12.6857 40.9584 255 255 255
71.7303 -11.5787 0.0199683 255 255 255
54.8406 -12.4671 1.32314 255 255 255
-47.1595 -11.6819 -18.738 255 255 255
-47.17 -11.4116 -17.7546 255 255 255
64.5252 -9.89916 -52.68 255 255 255
57.5866 -12.0771 3.24348 255 255 255
58.2412 -12.646 11.5845 255 255 255
61.6524 -13.4475 24.9818 255 255 255
-15.722 -13.0709 29.701 255 255 255
56.097 -12.9013 6.79001 255 255 255
-16.232 -13.3404 29.2294 255 255 255
-43.3999 -12.4374 -16.5014 255 255 255
-44.4228 -12.5767 -18.1245 255 255 255
-47.6319 -12.8398 -17.2828 255 255 255
62.0672 -13.1324 24.9624 255 255 255
60.3434 -13.6647 26.2573 255 255 255
54.37 -12.6985 -9.94388 255 255 255
60.2388 -13.7206 25.8633 255 255 255
61.1506 -13.4392 19.437 255 255 255
-16.8013 -13.7527 29.7449 255 255 255
56.0897 -13.7899 6.6243 255 255 255
58.6117 -13.3461 1.69537 255 255 255
61.9054 -13.9405 25.9604 255 255 255
1.78802 -14.049 41.3435 255 255 255
51.8114 -13.8056 -10.491 255 255 255
18.8636 -14.168 28.1329 255 255 255
56.2619 -14.2106 11.5976 255 255 255
-57.5007 -14.0306 -14.414 255 255 255
55.8342 -14.5246 5.60061 255 255 255
-2.67813 -14.5001 41.2269 255 255 255
56.7439 -14.3904 6.34471 255 255 255
-23.5698 -14.4574 25.0388 255 255 255
-50.1617 -14.1365 -15.3905 255 255 255
-18.0652 -14.6119 30.171 255 255 255
56.1707 -15.2719 5.55525 255 255 255
10.8094 -14.5996 35.0139 255 255 255
56.6953 -15.218 4.72412 255 255 255
-49.651 -15.0466 -14.3323 255 255 255
-14.3321 -15.0937 32.9013 255 255 255
-14.2552 -15.1448 33.2044 255 255 255
61.6704 -15.4279 24.3848 255 255 255
-5.26368 -15.4936 40.6378 255 255 255
56.2331 -15.6608 -7.34041 255 255 255
-16.8354 -15.5929 31.5619 255 255 255
7.33374 -15.8876 39.8727 255 255 255
56.8732 -16.3986 8.8723 255 255 255
-2.21559 -15.7311 41.4779 255 255 255
57.3508 -16.2772 9.87504 255 255 255
57.413 -16.485 7.96231 255 255 255
56.8109 -16.3693 2.57452 255 255 255
57.0884 -16.37 2.08106 255 255 255
57.6899 -16.6617 11.4179 255 255 255
61.2301 -16.5267 26.1326 255 255 255
62.9367 -16.2304 22.1988 255 255 255
61.0942 -16.701 25.6126 255 255 255
63.0851 -16.3168 22.4676 255 255 255
56.6943 -17.1277 0.243244 255 255 255
-15.1162 -16.4889 33.4172 255 255 255
59.1004 -17.0486 16.8703 255 255 255
59.1505 -17.0993 17.0208 255 255 255
-36.0218 -16.9172 -11.1025 255 255 255
-35.9039 -16.8786 -10.1913 255 255 255
-5.07583 -16.3961 40.535 255 255 255
25.9275 -16.8418 24.6065 255 255 255
56.4937 -17.8099 6.91158 255 255 255
-55.64 -17.4806 1.32358 255 255 255
-51.6406 -17.3418 -10.818 255 255 255
59.8792 -17.4307 25.3527 255 255 255
-0.390316 -16.7584 41.2961 255 255 255
57.9007 -17.5782 -0.123306 255 255 255
57.8178 -18.0251 10.598 255 255 255
59.0098 -17.8781 15.0175 255 255 255
-9.84454 -17.13 38.087 255 255 255
-54.5169 -17.9784 2.44423 255 255 255
-23.6291 -17.3157 28.6746 255 255 255
-13.0224 -17.0828 33.12 255 255 255
-47.7577 -18.8174 -9.38821 255 255 255
62.2589 -18.6406 25.6386 255 255 255
57.4119 -19.0948 7.61914 255 255 255
-22.7825 -17.9396 29.5715 255 255 255
-57.341 -19.0876 -8.60462 255 255 255
-47.3249 -19.4193 -8.78546 255 255 255
-54.3266 -19.4982 -8.24082 255 255 255
-9.47463 -18.1717 38.2456 255 255 255
-12.401 -18.2386 35.6301 255 255 255
57.437 -19.7949 1.77465 255 255 255
57.3508 -19.6763 6.44817 255 255 255
-78.0923 -19.4822 -7.72529 255 255 255
-51.5373 -19.9281 -7.628 255 255 255
-21.2815 -18.5153 30.3553 255 255 255
-16.6968 -18.5001 34.24 255 255 255
58.8619 -19.5273 14.4578 255 255 255
59.252 -19.4388 13.7218 255 255 255
11.8247 -18.4417 37.1594 255 255 255
60.0526 -19.3969 17.7119 255 255 255
-8.10327 -18.6471 39.0857 255 255 255
73.07 -20.0838 0.398051 255 255 255
-51.9837 -20.273 -7.00618 255 255 255
-2.59891 -18.7391 41.2436 255 255 255
62.4764 -20.0551 25.2386 255 255 255
-46.7754 -20.2614 -0.507259 255 255 255
-46.7754 -20.2614 -0.507259 255 255 255
20.2988 -19.3171 29.3577 255 255 255
57.5327 -20.6284 3.45171 255 255 255
68.9764 -20.6025 -1.06743 255 255 255
13.4537 -18.9446 28.794 255 255 255
60.4334 -20.3032 13.0703 255 255 255
-52.8485 -20.58 -7.33331 255 255 255
62.2485 -20.2876 24.0582 255 255 255
-2.42199 -18.8273 41.0912 255 255 255
57.9761 -21.3554 3.15848 255 255 255
62.4317 -20.68 22.0999 255 255 255
-24.2491 -20.1541 25.7071 255 255 255
15.1906 -19.9488 34.9995 255 255 255
63.9269 -21.1923 25.1278 255 255 255
-7.94816 -20.2496 38.4877 255 255 255
-50.9015 -22.3866 -4.68614 255 255 255
57.4189 -23.1971 1.63715 255 255 255
57.737 -22.9449 4.96307 255 255 255
-42.1622 -22.4808 -3.38833 255 255 255
58.0284 -22.8792 5.76393 255 255 255
-2.00863 -20.4346 40.9458 255 255 255
1.82242 -20.3236 40.9408 255 255 255
7.44649 -20.6118 33.0493 255 255 255
-50.7123 -23.0771 -3.50704 255 255 255
-55.5234 -23.3262 -4.017 255 255 255
-56.2641 -23.1967 -4.15953 255 255 255
69.7962 -23.5578 -2.69096 255 255 255
-0.0107514 -21.0273 41.0041 255 255 255
-48.0374 -23.2373 -2.87077 255 255 255
-5.45426 -20.9981 39.5038 255 255 255
21.2374 -21.7911 33.1112 255 255 255
57.8048 -24.127 4.18945 255 255 255
-50.2174 -23.4118 5.05361 255 255 255
7.27002 -21.2818 39.1862 255 255 255
59.8223 -23.828 8.32951 255 255 255
20.9681 -22.0529 33.632 255 255 255
12.8571 -21.5124 36.2888 255 255 255
15.3964 -21.8712 28.5831 255 255 255
0.0249214 -21.8099 40.7214 255 255 255
10.8626 -21.9584 38.3998 255 255 255
21.0139 -22.3132 33.4326 255 255 255
8.6456 -21.8535 32.2643 255 255 255
60.799 -24.5163 14.3995 255 255 255
-11.3678 -22.2414 38.9702 255 255 255
-10.5582 -22.5427 39.8975 255 255 255
-2.16116 -22.6519 36.7951 255 255 255
-38.068 -26.181 0.583483 255 255 255
-17.3368 -23.3211 36.9547 255 255 255
-20.0293 -23.5167 37.2623 255 255 255
7.60886 -23.5827 40.641 255 255 255
59.1307 -27.8869 2.04518 255 255 255
9.18729 -23.9935 33.924 255 255 255
64.3427 -26.5377 23.2083 255 255 255
-1.91497 -24.1022 42.4032 255 255 255
-2.15843 -24.2986 42.3062 255 255 255
63.0766 -27.2974 17.8147 255 255 255
-16.85 -24.5641 37.6551 255 255 255
1.69888 -24.4775 37.3955 255 255 255
61.8877 -28.2422 10.0596 255 255 255
60.4795 -28.6426 4.84111 255 255 255
-14.1049 -24.859 37.9484 255 255 255
-19.4642 -25.3947 33.7351 255 255 255
18.2126 -25.5554 36.7743 255 255 255
63.1725 -28.3437 13.7112 255 255 255
-6.9732 -25.0961 40.5889 255 255 255
-10.5381 -25.1837 39.5484 255 255 255
68.3788 -30.3302 -6.12704 255 255 255
78.8827 -29.4879 1.54668 255 255 255
78.8827 -29.4879 1.54668 255 255 255
75.9454 -30.4087 -0.421889 255 255 255
70.8772 -30.9876 -3.70409 255 255 255
63.4792 -29.1099 13.5944 255 255 255
63.4792 -29.1099 13.5944 255 255 255
-13.9962 -26.0117 39.8488 255 255 255
61.0833 -30.1875 9.34597 255 255 255
62.4462 -30.1053 12.5243 255 255 255
-7.34985 -26.1383 40.2332 255 255 255
60.2633 -30.1992 11.3218 255 255 255
-2.76965 -26.3313 41.8667 255 255 255
4.84799 -26.3362 41.2531 255 255 255
62.1171 -30.9237 8.63804 255 255 255
61.8178 -30.9757 8.9774 255 255 255
62.1172 -30.8573 8.47656 255 255 255
-5.5334 -26.5135 41.3281 255 255 255
76.8218 -31.9474 -0.488033 255 255 255
-16.1382 -27.1685 36.5305 255 255 255
5.1068 -26.8628 40.8942 255 255 255
-46.9817 -29.923 13.7985 255 255 255
13.5167 -27.1862 40.5314 255 255 255
63.066 -30.5578 20.788 255 255 255
13.4224 -27.3816 41.4515 255 255 255
13.5509 -27.3957 40.7495 255 255 255
-15.2929 -27.8215 36.8967 255 255 255
72.9518 -33.2882 -2.86941 255 255 255
-15.9877 -28.0246 35.6481 255 255 255
-13.0474 -27.52 40.6465 255 255 255
12.539 -27.6739 41.079 255 255 255
15.5329 -27.9642 40.604 255 255 255
-8.05245 -27.6753 42.0355 255 255 255
13.0088 -28.0753 40.5012 255 255 255
66.0904 -32.9283 6.6153 255 255 255
63.6283 -32.5369 8.96301 255 255 255
63.6028 -32.5741 8.69564 255 255 255
-5.18676 -27.8516 42.449 255 255 255
62.46 -32.7692 13.4537 255 255 255
65.0454 -32.5768 19.515 255 255 255
-1.69751 -28.2395 42.9307 255 255 255
8.30447 -28.4037 42.3496 255 255 255
-2.08567 -28.3117 39.5459 255 255 255
7.16323 -28.2524 43.1018 255 255 255
65.3121 -32.9554 20.0572 255 255 255
8.74713 -28.5114 42.1455 255 255 255
-7.88079 -28.5287 40.286 255 255 255
-9.69701 -28.9542 41.6123 255 255 255
-4.26365 -28.6926 43.9842 255 255 255
-5.7074 -28.4846 43.4756 255 255 255
-1.29287 -28.8009 43.6569 255 255 255
-1.74862 -28.5545 43.8136 255 255 255
-4.69262 -29.3893 40.6112 255 255 255
-47.1596 -34.4068 11.5384 255 255 255
2.34411 -30.0696 39.7377 255 255 255
-0.376311 -30.076 40.0158 255 255 255
2.10741 -29.9955 43.6205 255 255 255
4.53154 -30.4356 43.2183 255 255 255
-10.4221 -31.1044 39.2627 255 255 255
-8.99259 -30.8398 39.728 255 255 255
1.27586 -30.6732 43.1107 255 255 255
64.3775 -35.7315 19.2102 255 255 255
-0.185011 -30.7503 40.5781 255 255 255
-16.863 -32.8367 30.8887 255 255 255
-19.7988 -33.5263 27.0016 255 255 255
-9.15338 -31.7449 39.0308 255 255 255
64.0144 -39.8075 3.65963 255 255 255
-8.24976 -35.0263 36.303 255 255 255
-35.5568 -38.2124 21.3839 255 255 255
43.5587 -39.6557 18.9569 255 255 255
15.3678 -36.9786 31.1101 255 255 255
15.2907 -36.9248 31.2948 255 255 255
11.2071 -37.5921 26.969 255 255 255
9.53422 -36.9715 34.2991 255 255 255
69.3858 -44.0738 4.96094 255 255 255
35.0775 -41.6361 21.0694 255 255 255
34.6918 -42.2139 20.3127 255 255 255
2.31973 -38.2063 36.5132 255 255 255
2.80311 -38.658 35.4913 255 255 255
4.23002 -39.4968 33.9265 255 255 255
17.5779 -40.978 31.5167 255 255 255
4.61861 -40.4267 33.352 255 255 255
59.136 -45.9696 12.3048 255 255 255
-3.44441 -39.845 36.2104 255 255 255
55.5398 -46.6131 14.7051 255 255 255
75.686 -49.4954 5.85224 255 255 255
54.9048 -47.0393 15.4962 255 255 255
51.0746 -45.2328 22.2529 255 255 255
30.1918 -44.9945 25.4218 255 255 255
62.5031 -48.4184 12.9218 255 255 255
64.8622 -48.7544 11.933 255 255 255
56.6433 -47.9119 15.4472 255 255 255
51.2773 -47.3496 18.0694 255 255 255
-39.5543 -43.5111 31.8364 255 255 255
59.8708 -49.1277 14.9838 255 255 255
-40.7689 -45.4364 26.3245 255 255 255
53.6073 -48.5718 17.7289 255 255 255
14.5892 -45.0555 30.2979 255 255 255
-10.6022 -44.1958 32.941 255 255 255
52.9034 -49.0668 18.5498 255 255 255
29.378 -47.152 28.2391 255 255 255
-8.42752 -45.1967 32.6605 255 255 255
50.3481 -49.5604 20.25 255 255 255
0.363395 -45.1285 35.1495 255 255 255
2.25434 -46.8825 33.2914 255 255 255
-25.1668 -47.5388 29.724 255 255 255
43.1855 -49.922 24.4463 255 255 255
39.3609 -48.6914 29.0904 255 255 255
68.4885 -53.6927 13.6995 255 255 255
40.1258 -48.9406 29.3733 255 255 255
57.7706 -52.2926 18.8382 255 255 255
22.753 -49.2373 31.0709 255 255 255
22.0746 -48.5869 32.6421 255 255 255
-24.1133 -48.961 32.3152 255 255 255
-30.8015 -49.1023 31.5163 255 255 255
-24.9137 -49.0547 31.4965 255 255 255
-20.2592 -49.8691 32.6312 255 255 255
-18.5654 -48.8951 36.023 255 255 255
32.3886 -51.1464 33.8502 255 255 255
49.829 -54.412 24.7463 255 255 255
59.8908 -55.9892 20.461 255 255 255
47.9319 -54.2409 26.4342 255 255 255
28.0241 -50.7805 35.4804 255 255 255
66.3664 -57.3986 18.1122 255 255 255
-18.0059 -50.7137 35.5254 255 255 255
52.2 -55.4279 24.5851 255 255 255
52.2 -55.4279 24.5851 255 255 255
-27.3387 -51.4371 34.9233 255 255 255
-13.8688 -50.6054 37.2805 255 255 255
-21.3957 -50.4564 39.74 255 255 255
29.7566 -52.7586 35.763 255 255 255
53.866 -57.1098 24.9859 255 255 255
-31.4602 -49.605 44.1248 255 255 255
-17.4258 -52.1402 36.4834 255 255 255
-32.5774 -52.732 35.9803 255 255 255
-28.7007 -50.7018 41.3593 255 255 255
-15.2748 -51.5823 39.2126 255 255 255
19.8738 -53.3165 36.9144 255 255 255
-18.2523 -53.2463 37.1419 255 255 255
-6.3162 -52.6817 39.4287 255 255 255
51.2617 -57.8652 27.149 255 255 255
-6.12756 -52.6634 39.2192 255 255 255
33.6855 -54.1839 37.0575 255 255 255
-4.28486 -53.6102 37.7662 255 255 255
0.041943 -52.8869 39.8541 255 255 255
-11.8119 -53.8683 37.8205 255 255 255
1.12359 -53.2677 39.9721 255 255 255
5.32655 -53.3152 39.3297 255 255 255
40.2871 -56.7531 31.8446 255 255 255
-6.25461 -52.7477 40.8508 255 255 255
-0.388213 -53.2498 39.849 255 255 255
-10.8174 -52.7489 41.1066 255 255 255
-10.9447 -53.6702 38.2018 255 255 255
7.73409 -54.1981 38.43 255 255 255
7.86144 -54.4769 38.2931 255 255 255
47.8631 -58.121 29.3005 255 255 255
3.67899 -53.3003 39.663 255 255 255
-3.98907 -53.3898 40.395 255 255 255
3.34373 -53.5837 40.271 255 255 255
2.84372 -54.6759 38.523 255 255 255
-6.64799 -54.6194 38.7008 255 255 255
52.4572 -59.4725 27.7544 255 255 255
-13.2482 -53.1552 41.9307 255 255 255
-13.2482 -53.1552 41.9307 255 255 255
29.0791 -55.9868 36.2206 255 255 255
41.5708 -58.0438 32.329 255 255 255
30.4059 -56.6065 36.3803 255 255 255
50.8728 -59.8162 28.9397 255 255 255
50.8728 -59.8162 28.9397 255 255 255
-13.7301 -53.6477 42.9879 255 255 255
-13.9384 -54.7885 38.9816 255 255 255
-12.7189 -54.78 39.7315 255 255 255
-12.556 -53.7077 42.847 255 255 255
43.415 -58.7665 32.7975 255 255 255
21.7171 -55.7566 39.457 255 255 255
49.4926 -59.9263 29.7853 255 255 255
-3.36109 -54.3359 42.0759 255 255 255
-12.8097 -54.9463 39.9802 255 255 255
59.1879 95.5223 -111.202 255 255 255
-73.6466 56.2368 -22.3666 255 255 255
6.73254 79.368 -77.7578 255 255 255
6.5944 79.109 -77.1308 255 255 255
67.4064 95.3558 -112.225 255 255 255
4.78875 77.69 -73.7653 255 255 255
-62.105 56.1635 -24.9385 255 255 255
40.8932 87.6578 -97.6603 255 255 255
1.34715 76.3974 -72.9064 255 255 255
-217.28 151.733 -240.008 255 255 255
-5.15837 75.78 -74.7881 255 255 255
51.1843 48.6848 -8.06145 255 255 255
60.2597 92.104 -110.296 255 255 255
-50.3466 60.5033 -39.3401 255 255 255
83.1239 98.9463 -126.063 255 255 255
18.1231 79.5392 -84.1971 255 255 255
77.5531 97.5977 -125.891 255 255 255
51.0023 47.8951 -9.00728 255 255 255
-11.9601 71.0776 -66.5147 255 255 255
-12.0049 70.7233 -65.7402 255 255 255
-13.2801 70.6534 -64.857 255 255 255
70.4272 93.6908 -118.161 255 255 255
107.326 127.779 -195.905 255 255 255
-53.0061 58.5376 -36.9725 255 255 255
54.3733 48.5906 -12.8243 255 255 255
69.3925 93.0837 -119.408 255 255 255
34.3211 82.4981 -97.1964 255 255 255
68.1345 92.6668 -118.948 255 255 255
52.116 44.8241 -4.0324 255 255 255
66.6119 91.7378 -118.167 255 255 255
-63.2958 54.0628 -27.9876 255 255 255
3.21627 74.3142 -78.4093 255 255 255
52.9378 44.2379 -2.76977 255 255 255
33.9107 90.4951 -117.297 255 255 255
48.3421 49.4129 -16.6691 255 255 255
45.2573 34.4172 19.7721 255 255 255
39.9429 91.4141 -121.646 255 255 255
73.6527 100.32 -140.841 255 255 255
-87.7435 54.0715 -29.1587 255 255 255
45.3702 33.669 19.9359 255 255 255
0.355786 71.7784 -76.33 255 255 255
48.6574 32.6623 20.9154 255 255 255
-49.8582 56.7214 -41.9846 255 255 255
-33.4317 60.3981 -51.6605 255 255 255
-33.2447 61.528 -55.4981 255 255 255
-22.6839 63.9038 -60.8612 255 255 255
-24.0495 63.7608 -60.9834 255 255 255
80.6328 93.5134 -135.925 255 255 255
-62.7051 51.6602 -32.7385 255 255 255
49.6315 30.1168 24.8142 255 255 255
51.7165 43.4535 -11.511 255 255 255
20.2186 76.8111 -98.6631 255 255 255
-10.1922 67.1318 -76.7508 255 255 255
-131.626 81.3074 -106.252 255 255 255
-11.5714 65.2997 -72.3737 255 255 255
-11.6246 65.2932 -72.2357 255 255 255
-21.0343 62.0994 -65.8277 255 255 255
-10.7851 64.6071 -73.0444 255 255 255
-53.1932 53.7804 -43.3862 255 255 255
53.3836 40.8115 -8.43693 255 255 255
85.3282 99.5701 -166.134 255 255 255
-0.301977 67.8387 -83.7549 255 255 255
51.8914 29.2471 22.3769 255 255 255
-17.0676 63.9359 -76.1846 255 255 255
2.59681 67.5265 -84.4134 255 255 255
53.4737 27.1412 27.4811 255 255 255
-0.342069 66.2238 -82.9899 255 255 255
53.4371 38.8344 -6.18415 255 255 255
-15.3625 62.686 -74.1807 255 255 255
-15.3977 62.7714 -74.3415 255 255 255
48.4233 29.0949 20.1809 255 255 255
53.7656 26.7313 27.444 255 255 255
48.9974 27.2607 24.3733 255 255 255
28.0645 72.8605 -102.906 255 255 255
48.9362 87.085 -140.045 255 255 255
54.9099 26.0608 27.8855 255 255 255
-6.34397 63.8138 -80.0774 255 255 255
-13.6306 62.7061 -78.1358 255 255 255
61.1562 81.2736 -124.788 255 255 255
54.074 26.2969 27.5073 255 255 255
53.9752 24.4665 32.0985 255 255 255
54.5952 25.3726 29.2703 255 255 255
54.7334 24.7748 31.4486 255 255 255
54.7334 24.7748 31.4486 255 255 255
51.1251 25.006 29.5126 255 255 255
55.0843 24.6893 29.8176 255 255 255
53.7692 40.2938 -16.2898 255 255 255
55.238 24.4442 30.2553 255 255 255
-62.6121 47.4737 -40.3316 255 255 255
52.9979 21.5213 37.4284 255 255 255
53.0256 76.9194 -122.872 255 255 255
51.5358 23.873 29.7572 255 255 255
55.9095 23.0063 33.378 255 255 255
53.5641 24.2224 28.042 255 255 255
56.0036 23.6423 31.1498 255 255 255
44.7108 27.1268 20.5456 255 255 255
55.845 22.7525 33.094 255 255 255
-79.6822 47.9419 -42.7041 255 255 255
52.2959 22.6441 30.9986 255 255 255
55.7561 43.8338 -32.5495 255 255 255
57.1551 23.5943 29.13 255 255 255
49.5388 40.028 -22.2805 255 255 255
53.5583 43.4703 -31.4861 255 255 255
49.2454 39.7998 -21.9831 255 255 255
-128.22 69.6662 -106.52 255 255 255
54.319 19.6502 38.9436 255 255 255
-6.69627 59.8716 -85.1763 255 255 255
-48.94 48.325 -51.999 255 255 255
56.9268 21.2117 34.2792 255 255 255
57.4418 21.3344 34.4573 255 255 255
-50.7519 48.0798 -51.9388 255 255 255
50.4772 37.6897 -17.5491 255 255 255
59.4661 22.605 29.0884 255 255 255
57.6774 20.1941 35.4558 255 255 255
50.742 40.9142 -29.877 255 255 255
-7.01313 58.6756 -86.2441 255 255 255
48.3442 23.9491 22.5961 255 255 255
-60.3753 45.105 -46.319 255 255 255
49.1873 37.6113 -22.5463 255 255 255
49.049 37.4479 -22.1788 255 255 255
-23.9399 53.3787 -72.9425 255 255 255
-29.1894 54.3091 -77.2731 255 255 255
54.5464 40.3556 -32.4803 255 255 255
48.091 25.6977 14.1248 255 255 255
46.2465 25.6723 15.2824 255 255 255
-38.2006 49.4849 -63.6415 255 255 255
47.5041 38.9575 -28.774 255 255 255
50.4886 35.1979 -16.4272 255 255 255
45.6655 24.8867 15.3883 255 255 255
-40.236 49.2209 -63.5927 255 255 255
48.2628 25.3356 13.2756 255 255 255
27.4564 64.2801 -112.785 255 255 255
46.0045 24.1357 16.2103 255 255 255
51.4026 22.4425 21.7294 255 255 255
50.3524 23.9429 17.1121 255 255 255
10.0152 59.3444 -102.578 255 255 255
-71.0142 40.2849 -41.133 255 255 255
-71.9238 39.9107 -39.3495 255 255 255
49.6814 21.697 19.1985 255 255 255
-53.9207 44.8184 -58.6498 255 255 255
55.4239 16.404 38.1466 255 255 255
-73.6934 35.5626 -28.248 255 255 255
50.1913 32.5002 -20.5212 255 255 255
-4.83644 53.9405 -95.3261 255 255 255
-45.3155 44.5039 -63.4446 255 255 255
51.0175 32.3037 -20.2737 255 255 255
53.7487 18.2099 26.5194 255 255 255
56.1961 18.7216 27.0585 255 255 255
-81.4138 38.6445 -42.7119 255 255 255
-80.6919 37.6975 -40.4436 255 255 255
48.6995 20.7231 18.1565 255 255 255
-2.29892 54.1417 -100.033 255 255 255
81.0727 69.4144 -146.3 255 255 255
-18.6407 46.188 -73.4911 255 255 255
-6.16316 52.5208 -96.7665 255 255 255
51.1402 30.273 -17.5722 255 255 255
-77.4051 36.917 -40.0197 255 255 255
-78.3481 38.3154 -43.7632 255 255 255
-144.571 62.6468 -125.633 255 255 255
-2.57942 54.656 -104.633 255 255 255
-38.3372 44.343 -70.2107 255 255 255
51.5253 29.5475 -16.8556 255 255 255
50.8883 20.9307 14.9201 255 255 255
48.3991 33.9966 -31.0694 255 255 255
45.8124 20.9787 12.0416 255 255 255
45.2679 21.0764 12.6198 255 255 255
54.5973 32.1055 -27.0433 255 255 255
-4.99292 51.9526 -98.994 255 255 255
52.1135 28.9912 -16.5475 255 255 255
-2.63906 51.4762 -100.036 255 255 255
-7.83476 50.6935 -97.2248 255 255 255
49.3965 19.1323 18.0583 255 255 255
50.5605 16.7085 23.7363 255 255 255
55.6285 16.8975 25.4701 255 255 255
56.0172 17.1172 25.6432 255 255 255
-7.31038 50.1928 -98.5994 255 255 255
-39.7757 42.6956 -72.9843 255 255 255
-38.1332 42.0616 -72.3384 255 255 255
-38.0685 41.8427 -71.9143 255 255 255
-140.519 56.9794 -120.568 255 255 255
-62.1231 36.3959 -52.6814 255 255 255
-33.0294 43.6019 -79.7849 255 255 255
-33.156 43.5812 -79.3469 255 255 255
-56.2813 37.6102 -58.4906 255 255 255
-39.5944 40.9991 -73.5104 255 255 255
-66.5037 33.3688 -46.412 255 255 255
45.2804 19.2642 7.8734 255 255 255
-64.6533 37.5024 -61.0857 255 255 255
-27.0674 42.809 -86.3729 255 255 255
-51.2809 36.8592 -63.7662 255 255 255
53.851 12.416 31.4964 255 255 255
-82.2794 33.4489 -49.3735 255 255 255
-83.4192 33.2196 -49.5005 255 255 255
46.219 17.5519 11.8731 255 255 255
46.2322 17.5583 11.8313 255 255 255
46.167 17.7931 10.8168 255 255 255
55.1208 12.406 30.9987 255 255 255
-66.7413 33.0354 -51.5462 255 255 255
3.96293 44.1477 -96.0391 255 255 255
46.748 16.9895 11.4092 255 255 255
-62.2894 34.6384 -59.8162 255 255 255
49.6957 15.6159 16.6982 255 255 255
50.1084 15.8518 16.0476 255 255 255
-38.8512 38.6091 -77.8248 255 255 255
48.6717 18.6039 6.34841 255 255 255
61.4051 42.8181 -91.0012 255 255 255
-77.9582 32.2279 -51.0417 255 255 255
54.03 11.5062 31.3036 255 255 255
51.658 28.4318 -37.4088 255 255 255
-68.8017 30.7928 -51.2598 255 255 255
47.1229 15.9059 13.1026 255 255 255
-36.4427 36.6668 -77.7158 255 255 255
57.0538 29.8007 -49.6537 255 255 255
54.1193 23.5123 -24.5915 255 255 255
61.8967 28.2998 -43.4673 255 255 255
56.2501 12.6274 24.2934 255 255 255
-7.0101 37.8969 -87.5862 255 255 255
-84.0162 28.2935 -44.0815 255 255 255
4.58151 36.8769 -82.4859 255 255 255
53.8038 11.4698 24.4182 255 255 255
-67.2707 26.7922 -46.1824 255 255 255
48.4579 14.4141 10.3763 255 255 255
51.399 25.2672 -38.4476 255 255 255
2.72848 34.1597 -82.0758 255 255 255
-63.6012 31.2343 -66.1305 255 255 255
58.9979 11.2083 25.2657 255 255 255
57.4374 8.85367 32.498 255 255 255
55.3597 20.8734 -24.8893 255 255 255
-82.6071 28.4709 -54.3523 255 255 255
54.603 21.0667 -26.3556 255 255 255
55.3103 21.3968 -27.3032 255 255 255
57.6688 8.46707 32.9128 255 255 255
-63.8603 29.7204 -66.129 255 255 255
-83.1609 27.7768 -57.8678 255 255 255
47.58 12.7641 8.07314 255 255 255
55.4384 10.5638 22.1238 255 255 255
54.2409 21.2884 -30.972 255 255 255
-60.7279 25.4404 -52.8281 255 255 255
-63.4118 28.2651 -64.8692 255 255 255
26.8567 30.7972 -77.0347 255 255 255
54.246 9.20047 27.1674 255 255 255
-81.4996 26.8539 -61.8312 255 255 255
52.6399 11.2145 12.9672 255 255 255
50.1785 10.5684 14.3529 255 255 255
4.98388 27.016 -66.3861 255 255 255
57.2692 14.5241 -6.19824 255 255 255
49.4621 11.1408 9.78792 255 255 255
47.1799 11.0158 12.9496 255 255 255
3.85772 28.1183 -74.0616 255 255 255
48.7308 11.7153 5.59347 255 255 255
-34.9333 27.8262 -75.0802 255 255 255
48.2577 12.5318 1.98963 255 255 255
47.8061 12.2032 2.67263 255 255 255
-64.1403 21.8731 -49.0885 255 255 255
54.0796 8.17302 23.0898 255 255 255
-80.0167 23.5991 -54.1463 255 255 255
49.768 10.2693 8.939 255 255 255
-69.6056 17.7987 -33.2169 255 255 255
54.1843 7.71699 22.7373 255 255 255
25.8562 25.2135 -69.0476 255 255 255
-37.4893 24.5562 -67.8789 255 255 255
-78.1798 23.731 -61.0342 255 255 255
-70.0565 17.5969 -35.6141 255 255 255
-67.6388 24.3579 -68.8461 255 255 255
1.26745 24.1518 -68.9495 255 255 255
-11.7769 22.5275 -64.6446 255 255 255
-12.0391 23.7101 -67.3581 255 255 255
-31.7019 22.3524 -65.065 255 255 255
57.3625 4.0889 33.016 255 255 255
-7.30182 19.3563 -62.3267 255 255 255
-8.50571 18.939 -61.787 255 255 255
-0.803997 18.5648 -58.4499 255 255 255
50.589 6.47742 10.0188 255 255 255
-13.0869 18.6221 -62.5106 255 255 255
50.5695 6.35187 9.06578 255 255 255
-10.1698 17.5887 -60.095 255 255 255
-9.98098 16.9589 -59.1707 255 255 255
-10.7035 16.7321 -58.771 255 255 255
47.4737 6.39554 3.85723 255 255 255
47.1307 6.33848 4.28238 255 255 255
49.5745 5.29947 6.42787 255 255 255
2.63377 2.89352 20.9815 255 255 255
49.2356 5.20796 4.00073 255 255 255
58.2297 0.884326 31.2701 255 255 255
49.7738 4.2871 5.72534 255 255 255
58.771 1.65957 27.0144 255 255 255
-51.4024 11.7588 -51.8459 255 255 255
63.1439 4.49131 0 255 255 255
-14.3706 11.8066 -51.0228 255 255 255
-14.4962 11.9969 -51.4159 255 255 255
63.4476 3.94016 0.672936 255 255 255
-19.8218 10.2167 -48.8948 255 255 255
-22.0816 10.0052 -48.2609 255 255 255
6.33573 -0.679299 28.4198 255 255 255
48.3454 10.1401 -50.5846 255 255 255
49.5211 5.37294 -15.7678 255 255 255
59.4012 0.544306 23.0953 255 255 255
57.3674 0.0301486 26.2277 255 255 255
-38.6327 8.98955 -46.1739 255 255 255
58.7751 -1.13651 31.7743 255 255 255
58.6813 -0.547872 26.501 255 255 255
64.5419 2.72613 1.68332 255 255 255
-22.7874 9.34705 -47.732 255 255 255
-22.5922 9.0756 -47.564 255 255 255
53.8366 0.644481 15.3757 255 255 255
51.4962 1.10424 11.2079 255 255 255
51.1024 1.3038 7.62866 255 255 255
7.27862 -1.59099 27.4324 255 255 255
-31.3575 8.42862 -48.5741 255 255 255
-23.0586 7.66671 -45.5811 255 255 255
-24.01 6.85425 -43.6437 255 255 255
53.9288 -0.192924 14.5972 255 255 255
54.8942 -0.533955 17.6331 255 255 255
-23.5182 7.0625 -44.6898 255 255 255
-23.403 6.90493 -44.5978 255 255 255
-36.3227 6.50358 -43.0792 255 255 255
54.9496 0.0355157 11.9382 255 255 255
-44.1496 5.93294 -41.8153 255 255 255
57.8228 -2.18391 27.5395 255 255 255
54.4506 -0.729952 14.6031 255 255 255
57.3619 -1.82805 24.4997 255 255 255
52.0319 -0.57388 10.5094 255 255 255
56.1385 -1.1995 17.6674 255 255 255
-34.8857 4.59308 -38.9358 255 255 255
-9.06352 -3.02818 29.2433 255 255 255
-9.04863 -3.2777 30.8458 255 255 255
54.947 -1.11199 14.1124 255 255 255
-23.3992 5.70552 -43.2888 255 255 255
-23.4565 5.59387 -43.0636 255 255 255
55.7989 -1.77217 17.769 255 255 255
-8.24612 -3.5177 32.6264 255 255 255
55.7198 -2.05197 20.2421 255 255 255
-68.6395 5.30924 -43.5015 255 255 255
54.8572 -1.71785 16.7821 255 255 255
69.1981 -0.126416 3.1697 255 255 255
53.2178 -1.47912 11.7312 255 255 255
54.6625 -1.86014 15.2675 255 255 255
54.6625 -1.86014 15.2675 255 255 255
55.202 -2.19424 17.889 255 255 255
-35.3082 3.68126 -37.8246 255 255 255
-36.4358 3.64762 -39.6527 255 255 255
-10.314 -4.05664 30.7027 255 255 255
66.7493 -0.92252 1.09937 255 255 255
56.2748 -2.86744 18.8092 255 255 255
54.6698 -2.50487 14.7939 255 255 255
54.7224 -2.50617 14.7563 255 255 255
58.7738 -3.97208 29.4312 255 255 255
56.7082 -3.39344 20.9544 255 255 255
-68.116 3.40345 -41.5653 255 255 255
55.7631 -3.29348 19.1896 255 255 255
57.4622 -3.70628 24.1161 255 255 255
57.4622 -3.70628 24.1161 255 255 255
55.0871 -3.62318 20.0648 255 255 255
55.0871 -3.62318 20.0648 255 255 255
-42.5183 2.13255 -34.6073 255 255 255
54.0449 -2.75751 12.1451 255 255 255
-36.2527 1.87895 -35.2462 255 255 255
55.5608 -3.5985 18.2089 255 255 255
59.3953 -4.73187 30.3938 255 255 255
54.2428 -3.23956 12.892 255 255 255
57.4561 -4.91076 27.4337 255 255 255
61.9638 -3.46895 22.3156 255 255 255
59.3585 -3.76722 23.5102 255 255 255
55.9033 -4.39052 21.0257 255 255 255
-12.2781 -4.91284 30.2586 255 255 255
51.1304 -2.59186 3.55582 255 255 255
72.2533 -2.0578 0.661352 255 255 255
52.1768 -2.86356 1.90227 255 255 255
51.8702 -3.07005 2.65337 255 255 255
56.7712 -4.74656 21.3331 255 255 255
56.8608 -4.65923 22.5084 255 255 255
56.3948 -5.15542 24.4455 255 255 255
-4.00472 -6.39033 36.6994 255 255 255
12.6788 -5.41364 27.0007 255 255 255
56.6162 -4.66904 18.7297 255 255 255
56.448 -4.9961 20.478 255 255 255
57.2592 -5.21592 22.2196 255 255 255
54.8617 -4.57484 14.5228 255 255 255
59.5577 -5.89265 31.5934 255 255 255
58.3012 -5.10788 20.856 255 255 255
-10.3726 -6.40743 33.1457 255 255 255
53.1006 -4.8063 6.69659 255 255 255
56.9621 -5.49509 17.5786 255 255 255
61.1821 -5.68365 23.0904 255 255 255
65.098 -5.20303 17.4674 255 255 255
63.3331 -4.13593 -0.153358 255 255 255
57.4558 -6.20589 21.8611 255 255 255
57.4558 -6.20589 21.8611 255 255 255
55.415 -5.97466 16.425 255 255 255
-10.6746 -7.31931 34.1826 255 255 255
-14.1539 -7.27737 29.9292 255 255 255
56.6863 -6.39163 16.5672 255 255 255
56.0705 -6.51453 17.6034 255 255 255
48.5042 -4.26197 -13.4926 255 255 255
48.3223 -4.28359 -13.447 255 255 255
-39.9142 -3.11668 -30.4489 255 255 255
58.9296 -6.42487 16.7848 255 255 255
58.9296 -6.42487 16.7848 255 255 255
50.1377 -3.76033 -21.2638 255 255 255
51.8589 -5.8073 2.22799 255 255 255
57.4558 -7.35135 19.0116 255 255 255
57.2616 -7.3412 19.1873 255 255 255
-12.411 -8.28662 32.4771 255 255 255
-11.7302 -8.37575 32.0373 255 255 255
-10.3518 -8.72049 35.2635 255 255 255
-62.4282 -4.39893 -30.1564 255 255 255
59.198 -9.10787 31.0642 255 255 255
51.1663 -6.27319 -11.5472 255 255 255
69.1293 -6.93093 -0.451259 255 255 255
0.395312 -9.69087 40.1183 255 255 255
-61.9419 -5.55827 -28.2999 255 255 255
57.2997 -8.67719 19.684 255 255 255
58.02 -8.96408 22.8153 255 255 255
58.3818 -4.29431 -50.2654 255 255 255
57.6326 -9.18256 19.9215 255 255 255
59.6252 -9.62197 22.0685 255 255 255
57.9115 -9.50193 21.8119 255 255 255
-23.1303 -9.21799 18.1178 255 255 255
-13.0345 -9.83179 32.7985 255 255 255
55.9768 -9.25647 12.405 255 255 255
-64.4854 -7.09965 -25.6444 255 255 255
54.9937 -7.78212 -17.5336 255 255 255
55.7977 -9.42248 11.6841 255 255 255
58.8509 -10.3114 26.6216 255 255 255
53.2803 -6.7382 -32.0624 255 255 255
-62.2224 -7.75729 -22.7272 255 255 255
-15.9884 -9.99866 28.0311 255 255 255
5.82387 -10.2864 34.9761 255 255 255
58.0667 -10.2012 21.218 255 255 255
58.7807 -10.4543 23.2536 255 255 255
60.1312 -10.6432 27.7023 255 255 255
59.9525 -10.6178 27.6232 255 255 255
57.0845 -9.31949 4.1155 255 255 255
58.4577 -10.2683 16.7278 255 255 255
58.555 -10.8087 21.7905 255 255 255
-69.7189 -9.67812 -2.89939 255 255 255
-67.5639 -10.1657 2.72091 255 255 255
48.6206 -8.65775 -24.4495 255 255 255
55.0123 -10.437 10.7877 255 255 255
59.5938 -10.9803 23.4523 255 255 255
-25.1075 -10.7209 19.5389 255 255 255
57.3956 -10.3329 11.0733 255 255 255
51.998 -10.0262 -4.64721 255 255 255
51.998 -10.0262 -4.64721 255 255 255
-18.2511 -11.0929 25.4975 255 255 255
7.85841 -11.3235 33.1459 255 255 255
60.0553 -11.2745 22.8111 255 255 255
61.0061 -8.17122 -50.6835 255 255 255
-106.803 -9.65884 -22.7023 255 255 255
59.1679 -11.8192 23.2972 255 255 255
-0.121372 -11.9783 37.4746 255 255 255
0.0525347 -11.8557 36.7533 255 255 255
61.7668 -11.6132 23.8893 255 255 255
59.6417 -11.9658 24.7502 255 255 255
53.6013 -10.3395 -18.2165 255 255 255
59.3599 -12.1653 23.7109 255 255 255
52.7521 -11.5061 -7.48596 255 255 255
55.2624 -12.2918 6.06079 255 255 255
6.97772 -12.5564 37.0608 255 255 255
57.2698 -12.753 12.0036 255 255 255
-18.7989 -12.9275 27.8718 255 255 255
54.4369 -12.8393 1.98969 255 255 255
59.4019 -13.5215 26.3266 255 255 255
54.7014 -13.2489 0.136507 255 255 255
55.8662 -13.1622 3.54916 255 255 255
55.5102 -13.184 3.89647 255 255 255
60.6977 -13.7646 27.0474 255 255 255
53.403 -12.9888 -21.1098 255 255 255
53.403 -12.9888 -21.1098 255 255 255
55.4789 -13.6519 4.31885 255 255 255
-48.2563 -12.7038 -15.9053 255 255 255
56.21 -13.9523 5.16688 255 255 255
56.1643 -13.987 5.33112 255 255 255
57.4594 -13.716 -7.29076 255 255 255
-6.11102 -14.2753 40.7785 255 255 255
61.0983 -14.2649 27.6338 255 255 255
-9.23835 -14.2339 38.0157 255 255 255
60.9589 -14.3416 27.179 255 255 255
55.2777 -14.0243 -12.3366 255 255 255
56.3558 -14.8687 12.3514 255 255 255
60.8956 -14.585 26.8049 255 255 255
-70.5053 -13.6199 -18.4721 255 255 255
61.1806 -14.9751 25.5939 255 255 255
-70.2821 -13.7145 -15.6962 255 255 255
-6.24883 -14.6837 40.1879 255 255 255
-17.0477 -14.6932 31.1293 255 255 255
57.2902 -15.0242 8.49207 255 255 255
56.3078 -15.3088 10.0052 255 255 255
77.4922 -14.5065 3.4017 255 255 255
54.1208 -14.6401 -8.41519 255 255 255
57.6426 -14.1435 -28.9605 255 255 255
-36.612 -14.9882 -12.2544 255 255 255
7.92676 -15.0129 33.7751 255 255 255
